13.1999998093 6.5999999046 12.0100002289
13.1999998093 6.6900000572 12.0200004578
13.1999998093 6.6399998665 12.0399999619
13.1999998093 5.2300000191 13.0000000000
13.1999998093 4.9699997902 13.0399999619
13.1999998093 5.2300000191 13.0600004196
13.1999998093 5.0999999046 13.0699996948
13.1999998093 4.9600000381 13.1499996185
13.1999998093 5.9099998474 13.2799997330
13.1999998093 6.4499998093 13.3999996185
13.1999998093 6.7100000381 13.4300003052
13.1999998093 6.5399999619 13.4300003052
13.1999998093 6.5099997520 13.4499998093
13.1999998093 5.7100000381 13.5000000000
13.1999998093 5.5399999619 13.6199998856
13.1999998093 6.0199999809 13.8400001526
13.1999998093 6.1399998665 13.8900003433
13.1999998093 6.1199998856 13.9899997711
13.1999998093 6.1399998665 14.0200004578
13.2100000381 5.5699996948 6.5700001717
13.2100000381 6.7199997902 8.1099996567
13.2100000381 5.5799999237 9.3699998856
13.2100000381 5.1999998093 10.1300001144
13.2100000381 5.0799999237 10.1499996185
13.2100000381 6.2399997711 10.7600002289
13.2100000381 5.8899998665 11.9799995422
13.2100000381 5.6999998093 12.7500000000
13.2100000381 6.9699997902 12.8199996948
13.2100000381 6.9199995995 12.8699998856
13.2100000381 6.2999997139 13.0100002289
13.2100000381 5.1699995995 13.3800001144
13.2100000381 5.5599999428 13.3800001144
13.2100000381 6.6599998474 13.5000000000
13.2100000381 5.8199996948 13.5399999619
13.2100000381 6.4699997902 13.5600004196
13.2100000381 5.5999999046 13.5600004196
13.2100000381 5.5199999809 13.5699996948
13.2100000381 6.3599996567 13.6000003815
13.2100000381 6.3399996758 13.8299999237
13.2100000381 5.9299998283 13.8800001144
13.2100000381 6.0199999809 13.8900003433
13.2100000381 6.1999998093 13.9499998093
13.2100000381 6.2899999619 14.0200004578
13.2199993134 4.7399997711 9.7100000381
13.2199993134 4.8099999428 9.8999996185
13.2199993134 4.8099999428 9.9600000381
13.2199993134 6.2300000191 10.6099996567
13.2199993134 6.3299999237 10.6599998474
13.2199993134 6.4899997711 10.6899995804
13.2199993134 5.0699996948 11.1999998093
13.2199993134 5.5099997520 11.3599996567
13.2199993134 6.0799999237 11.9099998474
13.2199993134 5.7899999619 12.7600002289
13.2199993134 7.0000000000 12.8000001907
13.2199993134 5.4299998283 12.8400001526
13.2199993134 5.1900000572 13.0699996948
13.2199993134 6.5399999619 13.1099996567
13.2199993134 6.3399996758 13.2700004578
13.2199993134 5.3899998665 13.3999996185
13.2199993134 5.3399996758 13.4099998474
13.2199993134 5.2799997330 13.4200000763
13.2199993134 5.4299998283 13.4300003052
13.2199993134 6.5999999046 13.4600000381
13.2199993134 6.3699998856 13.4600000381
13.2199993134 6.7199997902 13.4600000381
13.2199993134 6.1599998474 13.5299997330
13.2199993134 5.8899998665 13.6499996185
13.2199993134 5.6199998856 13.6599998474
13.2199993134 6.0199999809 13.6599998474
13.2199993134 6.9800000191 13.7100000381
13.2199993134 6.3299999237 13.8900003433
13.2199993134 6.2899999619 13.9099998474
13.2199993134 6.0599999428 13.9700002670
13.2199993134 6.3699998856 14.0399999619
13.2299995422 4.6099996567 9.9300003052
13.2299995422 6.4699997902 10.7899999619
13.2299995422 5.1499996185 11.2299995422
13.2299995422 5.6199998856 11.3800001144
13.2299995422 6.0699996948 11.7600002289
13.2299995422 6.0399999619 11.8400001526
13.2299995422 5.2199997902 12.7799997330
13.2299995422 6.2300000191 12.8800001144
13.2299995422 6.1699995995 12.8999996185
13.2299995422 5.0299997330 13.0900001526
13.2299995422 4.9400000572 13.1000003815
13.2299995422 6.3799996376 13.3299999237
13.2299995422 6.8399996758 13.3800001144
13.2299995422 6.6299996376 13.4600000381
13.2299995422 6.5399999619 13.4700002670
13.2299995422 5.6199998856 13.4700002670
13.2299995422 6.8699998856 13.5000000000
13.2299995422 5.5499997139 13.6199998856
13.2299995422 6.9499998093 13.6300001144
13.2299995422 5.5299997330 13.6499996185
13.2299995422 6.9499998093 13.6800003052
13.2299995422 6.0399999619 13.8999996185
13.2299995422 6.1199998856 13.8999996185
13.2299995422 6.0299997330 13.9600000381
13.2299995422 6.1999998093 14.0900001526
13.2299995422 6.3099999428 14.1599998474
13.2399997711 5.5799999237 8.1599998474
13.2399997711 5.5299997330 9.3599996567
13.2399997711 4.5099997520 9.7700004578
13.2399997711 5.0099997520 9.9899997711
13.2399997711 5.1099996567 10.1400003433
13.2399997711 6.3999996185 10.3599996567
13.2399997711 5.0699996948 11.8199996948
13.2399997711 6.2599997520 11.9499998093
13.2399997711 6.1699995995 11.9600000381
13.2399997711 6.0499997139 12.8999996185
13.2399997711 6.2399997711 13.2299995422
13.2399997711 6.2599997520 13.2799997330
13.2399997711 5.9899997711 13.3100004196
13.2399997711 6.7199997902 13.3800001144
13.2399997711 5.8999996185 13.4499998093
13.2399997711 6.5699996948 13.4499998093
13.2399997711 6.9099998474 13.5500001907
13.2399997711 5.6399998665 13.5699996948
13.2399997711 6.8899998665 13.5900001526
13.2399997711 6.3699998856 13.6199998856
13.2399997711 5.6199998856 13.6400003433
13.2399997711 5.9199995995 13.6899995804
13.2399997711 6.3699998856 13.8100004196
13.2399997711 6.3199996948 14.0399999619
13.2399997711 6.3999996185 14.1599998474
13.2399997711 6.2300000191 14.1899995804
13.2500000000 4.6999998093 9.7100000381
13.2500000000 4.7999997139 9.8100004196
13.2500000000 4.7699999809 9.8100004196
13.2500000000 4.6999998093 9.8999996185
13.2500000000 4.7500000000 9.9200000763
13.2500000000 5.4199995995 10.1899995804
13.2500000000 5.5099997520 11.3800001144
13.2500000000 4.9499998093 11.4799995422
13.2500000000 5.8999996185 11.6800003052
13.2500000000 6.3699998856 12.0200004578
13.2500000000 5.1699995995 12.8999996185
13.2500000000 5.0099997520 12.9099998474
13.2500000000 6.2599997520 12.9300003052
13.2500000000 5.1199998856 12.9499998093
13.2500000000 6.2799997330 13.0100002289
13.2500000000 6.2899999619 13.2100000381
13.2500000000 5.6900000572 13.2700004578
13.2500000000 5.7899999619 13.3100004196
13.2500000000 5.5199999809 13.3299999237
13.2500000000 5.3399996758 13.3599996567
13.2500000000 5.2399997711 13.3900003433
13.2500000000 6.3899998665 13.3999996185
13.2500000000 6.8099999428 13.4200000763
13.2500000000 6.6499996185 13.4399995804
13.2500000000 6.3699998856 13.4799995422
13.2500000000 5.6299996376 13.5299997330
13.2500000000 6.7699999809 13.5299997330
13.2500000000 6.8299999237 13.5500001907
13.2500000000 7.0399999619 13.6700000763
13.2500000000 6.2899999619 13.7100000381
13.2500000000 6.2100000381 13.7600002289
13.2500000000 6.4099998474 13.9799995422
13.2500000000 6.3399996758 14.2399997711
13.2600002289 5.5599999428 8.1599998474
13.2600002289 4.5899996758 9.8000001907
13.2600002289 4.8999996185 9.8599996567
13.2600002289 4.6799998283 9.9099998474
13.2600002289 4.6399998665 9.9200000763
13.2600002289 5.3199996948 10.1199998856
13.2600002289 5.3999996185 10.2200002670
13.2600002289 5.8699998856 10.5600004196
13.2600002289 5.6799998283 11.6700000763
13.2600002289 6.0799999237 11.7100000381
13.2600002289 6.0599999428 11.7299995422
13.2600002289 6.1199998856 11.9099998474
13.2600002289 6.3999996185 12.0100002289
13.2600002289 6.5099997520 12.0100002289
13.2600002289 6.8599996567 12.8599996567
13.2600002289 6.9600000381 12.8999996185
13.2600002289 5.2100000381 12.9499998093
13.2600002289 5.1999998093 12.9799995422
13.2600002289 6.2799997330 13.1499996185
13.2600002289 5.9299998283 13.3800001144
13.2600002289 5.8399996758 13.4099998474
13.2600002289 5.3299999237 13.4200000763
13.2600002289 6.3599996567 13.4200000763
13.2600002289 5.5699996948 13.4200000763
13.2600002289 5.6299996376 13.4300003052
13.2600002289 6.8299999237 13.4499998093
13.2600002289 6.7399997711 13.4499998093
13.2600002289 6.5499997139 13.5699996948
13.2600002289 6.4499998093 13.5900001526
13.2600002289 6.8299999237 13.6000003815
13.2600002289 6.3199996948 13.6400003433
13.2600002289 5.8699998856 13.6599998474
13.2600002289 5.9899997711 13.6800003052
13.2600002289 6.2599997520 13.8100004196
13.2600002289 5.9600000381 13.8999996185
13.2600002289 6.4600000381 14.3199996948
13.2699995041 4.6900000572 9.7899999619
13.2699995041 4.7899999619 9.8999996185
13.2699995041 5.2899999619 9.9099998474
13.2699995041 4.6199998856 10.0200004578
13.2699995041 7.0699996948 10.3299999237
13.2699995041 5.9499998093 10.5399999619
13.2699995041 5.9400000572 11.0600004196
13.2699995041 5.3899998665 11.3100004196
13.2699995041 5.7300000191 11.4300003052
13.2699995041 6.2399997711 11.8699998856
13.2699995041 6.5699996948 11.9799995422
13.2699995041 5.0499997139 12.0100002289
13.2699995041 6.5899996758 12.0500001907
13.2699995041 4.9499998093 12.9499998093
13.2699995041 5.0000000000 13.0299997330
13.2699995041 4.9499998093 13.1199998856
13.2699995041 5.8199996948 13.3299999237
13.2699995041 6.3199996948 13.3299999237
13.2699995041 5.7999997139 13.3400001526
13.2699995041 5.7300000191 13.3500003815
13.2699995041 6.5799999237 13.3599996567
13.2699995041 6.5099997520 13.3599996567
13.2699995041 5.3799996376 13.3900003433
13.2699995041 5.4400000572 13.4300003052
13.2699995041 6.3999996185 13.5000000000
13.2699995041 6.2699999809 13.5900001526
13.2699995041 6.5499997139 13.6199998856
13.2699995041 6.3999996185 13.6300001144
13.2699995041 6.1699995995 13.9200000763
13.2699995041 6.2100000381 13.9200000763
13.2699995041 6.4699997902 14.0799999237
13.2699995041 6.4299998283 14.1400003433
13.2799997330 4.5499997139 9.7600002289
13.2799997330 5.5499997139 9.8100004196
13.2799997330 4.8899998665 9.9499998093
13.2799997330 5.2699999809 10.1800003052
13.2799997330 7.1599998474 10.1999998093
13.2799997330 7.1399998665 10.2899999619
13.2799997330 7.0699996948 10.2899999619
13.2799997330 6.0999999046 10.6599998474
13.2799997330 6.1799998283 10.6800003052
13.2799997330 6.0799999237 11.8800001144
13.2799997330 5.2999997139 12.7500000000
13.2799997330 6.7699999809 12.8199996948
13.2799997330 6.9199995995 12.8299999237
13.2799997330 5.0399999619 12.8999996185
13.2799997330 5.1699995995 12.9499998093
13.2799997330 5.1399998665 12.9499998093
13.2799997330 6.2699999809 12.9899997711
13.2799997330 6.3099999428 13.2100000381
13.2799997330 5.7199997902 13.2299995422
13.2799997330 5.5599999428 13.2700004578
13.2799997330 6.6999998093 13.3299999237
13.2799997330 5.3199996948 13.3599996567
13.2799997330 5.4699997902 13.3800001144
13.2799997330 6.6599998474 13.4799995422
13.2799997330 6.7599997520 13.5000000000
13.2799997330 5.5000000000 13.5799999237
13.2799997330 6.3699998856 13.6300001144
13.2799997330 5.5999999046 13.6400003433
13.2799997330 6.5499997139 13.6499996185
13.2799997330 6.4800000191 13.6700000763
13.2799997330 6.2100000381 13.9300003052
13.2799997330 6.1900000572 13.9399995804
13.2799997330 6.2100000381 14.1800003052
13.2799997330 6.3099999428 14.2299995422
13.2899999619 5.6299996376 9.3299999237
13.2899999619 4.7500000000 9.9099998474
13.2899999619 5.0199999809 10.0200004578
13.2899999619 5.0999999046 10.1199998856
13.2899999619 5.3199996948 10.1400003433
13.2899999619 7.2599997520 10.1899995804
13.2899999619 7.1499996185 10.2100000381
13.2899999619 5.9099998474 10.5600004196
13.2899999619 6.2199997902 10.6300001144
13.2899999619 5.7399997711 10.6999998093
13.2899999619 5.4400000572 11.3100004196
13.2899999619 5.6099996567 11.3500003815
13.2899999619 5.4099998474 11.3900003433
13.2899999619 6.1699995995 11.8999996185
13.2899999619 5.3699998856 11.9399995804
13.2899999619 6.5299997330 12.0000000000
13.2899999619 6.9199995995 12.9200000763
13.2899999619 5.1999998093 13.0900001526
13.2899999619 5.1699995995 13.1499996185
13.2899999619 6.5000000000 13.2899999619
13.2899999619 6.6299996376 13.4700002670
13.2899999619 6.1599998474 13.5000000000
13.2899999619 6.8099999428 13.5000000000
13.2899999619 6.8799996376 13.5500001907
13.2899999619 6.4499998093 13.6300001144
13.2899999619 6.5599999428 13.6400003433
13.2899999619 5.9699997902 13.8800001144
13.2899999619 6.4499998093 14.3800001144
13.2899999619 6.4499998093 14.4099998474
13.3000001907 4.8399996758 9.8999996185
13.3000001907 5.0199999809 10.0600004196
13.3000001907 5.2100000381 10.1700000763
13.3000001907 7.2500000000 10.1999998093
13.3000001907 5.1999998093 10.2600002289
13.3000001907 5.3099999428 10.2600002289
13.3000001907 6.1399998665 10.5299997330
13.3000001907 5.9299998283 11.0500001907
13.3000001907 5.5799999237 11.3400001526
13.3000001907 5.7599997520 11.4399995804
13.3000001907 6.1699995995 11.7700004578
13.3000001907 5.1999998093 12.7299995422
13.3000001907 6.9699997902 12.8800001144
13.3000001907 6.9699997902 12.9099998474
13.3000001907 4.9699997902 12.9200000763
13.3000001907 6.3099999428 13.1000003815
13.3000001907 6.7199997902 13.3500003815
13.3000001907 6.6099996567 13.3599996567
13.3000001907 6.8599996567 13.3999996185
13.3000001907 5.4600000381 13.4799995422
13.3000001907 6.8399996758 13.6000003815
13.3000001907 6.2100000381 13.6400003433
13.3000001907 6.5299997330 13.6499996185
13.3000001907 6.3899998665 14.1300001144
13.3000001907 6.4699997902 14.1400003433
13.3099994659 5.6099996567 9.3699998856
13.3099994659 5.2799997330 9.5000000000
13.3099994659 4.6199998856 9.6899995804
13.3099994659 4.6799998283 9.8000001907
13.3099994659 5.3399996758 10.1300001144
13.3099994659 5.1999998093 10.2200002670
13.3099994659 6.2599997520 10.2399997711
13.3099994659 5.3399996758 10.2799997330
13.3099994659 7.1299996376 10.3100004196
13.3099994659 5.8199996948 10.5900001526
13.3099994659 6.1999998093 10.6499996185
13.3099994659 5.7199997902 11.3999996185
13.3099994659 5.1799998283 11.9600000381
13.3099994659 6.1900000572 12.0200004578
13.3099994659 6.7500000000 12.8199996948
13.3099994659 5.2100000381 12.9700002670
13.3099994659 5.0699996948 13.0699996948
13.3099994659 6.4400000572 13.2299995422
13.3099994659 6.5599999428 13.3299999237
13.3099994659 6.5000000000 13.3699998856
13.3099994659 5.5199999809 13.4200000763
13.3099994659 6.8199996948 13.4300003052
13.3099994659 5.4199995995 13.4399995804
13.3099994659 6.8199996948 13.5699996948
13.3099994659 6.4199995995 13.7700004578
13.3099994659 6.4099998474 13.8900003433
13.3099994659 6.1099996567 13.9799995422
13.3199996948 5.5399999619 6.6300001144
13.3199996948 6.1900000572 8.0500001907
13.3199996948 4.6699995995 8.0900001526
13.3199996948 5.5299997330 9.3800001144
13.3199996948 4.6199998856 9.8000001907
13.3199996948 4.6299996376 9.8599996567
13.3199996948 4.8099999428 9.9399995804
13.3199996948 4.8399996758 10.1099996567
13.3199996948 5.0499997139 10.1400003433
13.3199996948 7.2399997711 10.2299995422
13.3199996948 5.8799996376 10.5500001907
13.3199996948 6.2399997711 10.6000003815
13.3199996948 6.2500000000 11.8400001526
13.3199996948 6.1999998093 11.8900003433
13.3199996948 6.5299997330 12.0100002289
13.3199996948 6.8799996376 12.8999996185
13.3199996948 5.2699999809 12.9399995804
13.3199996948 6.2599997520 12.9700002670
13.3199996948 6.6399998665 13.3500003815
13.3199996948 6.6900000572 13.4099998474
13.3199996948 6.8299999237 13.4799995422
13.3199996948 6.4299998283 13.6599998474
13.3199996948 6.0699996948 13.7399997711
13.3199996948 5.8399996758 13.7399997711
13.3199996948 5.9899997711 13.9099998474
13.3199996948 6.3899998665 14.2399997711
13.3199996948 6.4699997902 14.2799997330
13.3299999237 5.5399999619 8.1700000763
13.3299999237 5.4800000191 9.3699998856
13.3299999237 4.8699998856 9.7100000381
13.3299999237 4.6699995995 9.7500000000
13.3299999237 4.9199995995 9.9799995422
13.3299999237 6.1799998283 10.1800003052
13.3299999237 6.0799999237 10.6099996567
13.3299999237 6.0599999428 11.8199996948
13.3299999237 6.5899996758 12.0000000000
13.3299999237 6.1499996185 12.8400001526
13.3299999237 6.2100000381 12.8599996567
13.3299999237 5.0899996758 12.8900003433
13.3299999237 6.9699997902 12.8999996185
13.3299999237 6.7300000191 13.3699998856
13.3299999237 6.4499998093 13.4399995804
13.3299999237 6.1999998093 13.4700002670
13.3299999237 6.8499999046 13.5299997330
13.3299999237 7.0299997330 13.6000003815
13.3299999237 6.5099997520 13.6899995804
13.3299999237 6.3099999428 13.8199996948
13.3299999237 6.2100000381 14.1599998474
13.3400001526 6.2399997711 8.0600004196
13.3400001526 4.6900000572 8.0699996948
13.3400001526 5.0199999809 8.3199996948
13.3400001526 5.3099999428 9.5000000000
13.3400001526 4.8799996376 9.9399995804
13.3400001526 4.6499996185 10.0299997330
13.3400001526 5.0199999809 10.1300001144
13.3400001526 6.2799997330 10.2299995422
13.3400001526 5.8399996758 10.5900001526
13.3400001526 6.1900000572 10.6599998474
13.3400001526 6.2399997711 11.8800001144
13.3400001526 6.2300000191 11.9899997711
13.3400001526 5.4899997711 12.5399999619
13.3400001526 6.9699997902 12.8500003815
13.3400001526 6.8099999428 12.8599996567
13.3400001526 5.0999999046 12.8599996567
13.3400001526 5.0199999809 12.8800001144
13.3400001526 4.9600000381 12.8900003433
13.3400001526 5.1499996185 12.9300003052
13.3400001526 6.3599996567 13.1099996567
13.3400001526 6.4499998093 13.1899995804
13.3400001526 5.4800000191 13.6999998093
13.3400001526 6.0699996948 13.7700004578
13.3400001526 6.1699995995 13.8400001526
13.3400001526 6.2399997711 13.8599996567
13.3400001526 6.2699999809 13.8699998856
13.3400001526 6.2300000191 14.0799999237
13.3400001526 6.2300000191 14.1300001144
13.3400001526 6.1699995995 14.1499996185
13.3400001526 6.4299998283 14.3000001907
13.3499994278 5.5299997330 6.5000000000
13.3499994278 4.5899996758 8.1099996567
13.3499994278 5.4400000572 10.0299997330
13.3499994278 5.3799996376 10.1700000763
13.3499994278 5.0999999046 10.1700000763
13.3499994278 5.8999996185 10.5399999619
13.3499994278 5.9199995995 11.6599998474
13.3499994278 5.9699997902 11.8599996567
13.3499994278 6.6099996567 12.0000000000
13.3499994278 6.5399999619 12.0100002289
13.3499994278 5.1900000572 12.8199996948
13.3499994278 6.7599997520 12.8400001526
13.3499994278 6.8999996185 12.8800001144
13.3499994278 6.8999996185 12.9099998474
13.3499994278 7.0099997520 12.9200000763
13.3499994278 6.3599996567 13.2600002289
13.3499994278 6.2899999619 13.2700004578
13.3499994278 5.2999997139 13.3100004196
13.3499994278 6.6299996376 13.3800001144
13.3499994278 5.4899997711 13.3900003433
13.3499994278 5.7799997330 13.5299997330
13.3499994278 5.9299998283 13.7600002289
13.3499994278 6.1199998856 13.8999996185
13.3499994278 6.2899999619 14.0299997330
13.3499994278 6.3199996948 14.0600004196
13.3499994278 6.2300000191 14.1000003815
13.3499994278 6.4299998283 14.2799997330
13.3499994278 6.3799996376 14.2899999619
13.3499994278 6.4299998283 14.3000001907
13.3599996567 4.6499996185 8.0600004196
13.3599996567 5.5699996948 8.1400003433
13.3599996567 5.3499999046 9.4799995422
13.3599996567 5.1499996185 10.0000000000
13.3599996567 6.1699995995 10.1999998093
13.3599996567 6.0899996758 10.5699996948
13.3599996567 5.9299998283 10.6199998856
13.3599996567 6.1199998856 11.8599996567
13.3599996567 5.5199999809 12.7100000381
13.3599996567 5.3199996948 12.7299995422
13.3599996567 6.8499999046 12.8500003815
13.3599996567 6.9600000381 12.8900003433
13.3599996567 4.9899997711 12.9300003052
13.3599996567 5.5799999237 13.2799997330
13.3599996567 5.3799996376 13.2899999619
13.3599996567 5.2399997711 13.3000001907
13.3599996567 5.8599996567 13.3999996185
13.3599996567 5.4400000572 13.4499998093
13.3599996567 5.5399999619 13.4600000381
13.3599996567 5.8299999237 13.6199998856
13.3599996567 5.9400000572 13.7600002289
13.3599996567 6.0199999809 13.7600002289
13.3599996567 6.0299997330 13.7899999619
13.3599996567 6.1399998665 13.8800001144
13.3599996567 6.1499996185 13.9200000763
13.3599996567 6.5399999619 13.9700002670
13.3599996567 6.4199995995 14.0600004196
13.3599996567 6.3199996948 14.0600004196
13.3599996567 5.7599997520 14.2799997330
13.3599996567 6.4400000572 14.2799997330
13.3699998856 5.6099996567 8.1099996567
13.3699998856 5.0999999046 8.2700004578
13.3699998856 4.4899997711 9.6499996185
13.3699998856 4.5899996758 9.7700004578
13.3699998856 4.6900000572 9.8199996948
13.3699998856 4.7999997139 9.8400001526
13.3699998856 4.5199999809 9.8599996567
13.3699998856 5.3999996185 10.1700000763
13.3699998856 6.2500000000 10.1999998093
13.3699998856 6.9299998283 10.3299999237
13.3699998856 6.1799998283 10.5900001526
13.3699998856 6.1900000572 11.8400001526
13.3699998856 6.5899996758 12.0100002289
13.3699998856 5.1499996185 12.8900003433
13.3699998856 6.9899997711 12.9300003052
13.3699998856 4.8999996185 12.9499998093
13.3699998856 6.7500000000 13.2799997330
13.3699998856 5.6799998283 13.2799997330
13.3699998856 5.3399996758 13.2899999619
13.3699998856 5.7399997711 13.4600000381
13.3699998856 5.4600000381 13.4600000381
13.3699998856 5.5399999619 13.4600000381
13.3699998856 6.8099999428 13.5200004578
13.3699998856 6.2799997330 13.5500001907
13.3699998856 6.0699996948 13.6099996567
13.3699998856 5.8499999046 13.6700000763
13.3699998856 6.4600000381 14.0600004196
13.3699998856 6.3999996185 14.0699996948
13.3699998856 6.3999996185 14.3100004196
13.3800001144 6.1199998856 8.1000003815
13.3800001144 4.5799999237 8.1700000763
13.3800001144 4.7999997139 9.7299995422
13.3800001144 4.8299999237 9.9200000763
13.3800001144 4.9400000572 10.0100002289
13.3800001144 5.4199995995 10.0600004196
13.3800001144 5.1299996376 10.0900001526
13.3800001144 6.1599998474 10.2700004578
13.3800001144 6.0599999428 10.5900001526
13.3800001144 6.1399998665 11.4700002670
13.3800001144 6.0199999809 11.6999998093
13.3800001144 5.5599999428 11.7100000381
13.3800001144 5.5099997520 12.5600004196
13.3800001144 4.9899997711 12.6199998856
13.3800001144 7.0000000000 12.8000001907
13.3800001144 6.0099997520 12.8100004196
13.3800001144 4.9499998093 12.8599996567
13.3800001144 6.8899998665 12.8699998856
13.3800001144 4.9899997711 12.8800001144
13.3800001144 5.6199998856 13.2700004578
13.3800001144 5.2599997520 13.3100004196
13.3800001144 5.7399997711 13.4399995804
13.3800001144 6.3399996758 13.5200004578
13.3800001144 5.9499998093 13.8699998856
13.3800001144 6.1900000572 13.8699998856
13.3899993896 5.5299997330 6.6500000954
13.3899993896 5.1099996567 7.6999998093
13.3899993896 6.1999998093 8.0699996948
13.3899993896 4.6199998856 8.0900001526
13.3899993896 5.5599999428 8.1800003052
13.3899993896 5.1399998665 8.2299995422
13.3899993896 5.0999999046 8.3000001907
13.3899993896 5.5699996948 9.3599996567
13.3899993896 4.6599998474 9.7100000381
13.3899993896 4.6399998665 9.7399997711
13.3899993896 4.8799996376 9.9899997711
13.3899993896 4.8299999237 10.0299997330
13.3899993896 6.2199997902 10.2399997711
13.3899993896 6.1599998474 10.2600002289
13.3899993896 5.1799998283 10.2799997330
13.3899993896 6.1399998665 10.5699996948
13.3899993896 5.8699998856 10.6000003815
13.3899993896 5.8599996567 10.7100000381
13.3899993896 5.9199995995 10.9600000381
13.3899993896 5.3999996185 11.1999998093
13.3899993896 5.0799999237 11.2600002289
13.3899993896 5.3999996185 11.3599996567
13.3899993896 5.4699997902 12.5000000000
13.3899993896 5.0699996948 12.7799997330
13.3899993896 7.0699996948 12.8199996948
13.3899993896 6.9899997711 12.8900003433
13.3899993896 6.8299999237 12.8900003433
13.3899993896 6.1900000572 12.9499998093
13.3899993896 6.2199997902 13.0399999619
13.3899993896 6.2399997711 13.0699996948
13.3899993896 5.3399996758 13.2299995422
13.3899993896 5.6299996376 13.2799997330
13.3899993896 6.6799998283 13.3199996948
13.3899993896 6.1599998474 13.8999996185
13.3899993896 6.4699997902 14.3299999237
13.3999996185 5.6900000572 7.4499998093
13.3999996185 4.6900000572 8.0299997330
13.3999996185 5.6499996185 8.1400003433
13.3999996185 5.6900000572 9.3000001907
13.3999996185 5.4199995995 9.5100002289
13.3999996185 4.6499996185 9.8199996948
13.3999996185 5.2899999619 10.2200002670
13.3999996185 6.1399998665 10.2799997330
13.3999996185 6.0399999619 10.7500000000
13.3999996185 5.4499998093 11.1400003433
13.3999996185 5.0599999428 12.6099996567
13.3999996185 5.0299997330 12.6700000763
13.3999996185 6.1699995995 12.6800003052
13.3999996185 5.1499996185 12.6899995804
13.3999996185 5.1299996376 12.7399997711
13.3999996185 6.9299998283 12.9099998474
13.3999996185 6.2599997520 13.0000000000
13.3999996185 6.3799996376 13.1999998093
13.3999996185 5.7199997902 13.4099998474
13.3999996185 6.1900000572 13.7799997330
13.3999996185 5.9800000191 13.8400001526
13.3999996185 6.2699999809 14.0200004578
13.3999996185 6.3499999046 14.0500001907
13.3999996185 6.3899998665 14.2799997330
13.4099998474 5.0899996758 7.7300000191
13.4099998474 4.6199998856 9.6899995804
13.4099998474 4.7599997520 9.7200002670
13.4099998474 4.8999996185 10.0200004578
13.4099998474 5.0399999619 10.0600004196
13.4099998474 6.1999998093 10.2399997711
13.4099998474 6.1900000572 10.2600002289
13.4099998474 6.0199999809 10.5600004196
13.4099998474 5.3899998665 12.4399995804
13.4099998474 6.9899997711 12.8400001526
13.4099998474 6.2699999809 13.0000000000
13.4099998474 5.5000000000 13.5600004196
13.4099998474 5.7799997330 13.6300001144
13.4099998474 5.8699998856 13.6599998474
13.4099998474 6.0699996948 13.7399997711
13.4099998474 6.2999997139 14.1400003433
13.4099998474 6.4899997711 14.3299999237
13.4099998474 6.4899997711 14.4099998474
13.4200000763 5.5399999619 6.6399998665
13.4200000763 5.1399998665 7.6500000954
13.4200000763 6.1399998665 8.0699996948
13.4200000763 5.5799999237 8.1700000763
13.4200000763 5.0799999237 8.2200002670
13.4200000763 5.0699996948 8.3400001526
13.4200000763 4.8099999428 9.9799995422
13.4200000763 6.2899999619 10.2200002670
13.4200000763 6.0899996758 10.5600004196
13.4200000763 5.1999998093 11.4200000763
13.4200000763 6.0499997139 11.9200000763
13.4200000763 5.0499997139 12.6300001144
13.4200000763 5.0299997330 12.6999998093
13.4200000763 6.3999996185 12.8400001526
13.4200000763 6.5799999237 13.3400001526
13.4200000763 6.4800000191 13.3500003815
13.4200000763 6.5899996758 13.3699998856
13.4200000763 5.5799999237 13.3900003433
13.4200000763 6.4499998093 13.6400003433
13.4200000763 6.0099997520 13.8199996948
13.4200000763 6.3299999237 14.1300001144
13.4200000763 5.7899999619 14.2600002289
13.4200000763 5.7199997902 14.3000001907
13.4200000763 6.4499998093 14.3299999237
13.4299993515 5.6799998283 7.4299998283
13.4299993515 5.2999997139 7.7899999619
13.4299993515 5.6499996185 8.0900001526
13.4299993515 4.5799999237 9.7200002670
13.4299993515 4.7999997139 9.8500003815
13.4299993515 4.8999996185 9.8999996185
13.4299993515 4.7699999809 9.9099998474
13.4299993515 6.1399998665 10.3400001526
13.4299993515 7.0199999809 10.3500003815
13.4299993515 6.1799998283 10.5600004196
13.4299993515 6.0399999619 11.7600002289
13.4299993515 5.1199998856 12.6000003815
13.4299993515 5.3599996567 12.6599998474
13.4299993515 6.3899998665 12.6899995804
13.4299993515 5.0599999428 13.0299997330
13.4299993515 5.1799998283 13.1599998474
13.4299993515 5.3099999428 13.2399997711
13.4299993515 6.4499998093 13.2500000000
13.4299993515 5.2899999619 13.2799997330
13.4299993515 5.3999996185 13.3800001144
13.4299993515 5.6399998665 13.5200004578
13.4299993515 5.5199999809 13.5399999619
13.4299993515 6.1599998474 13.6300001144
13.4299993515 5.8099999428 13.6599998474
13.4299993515 6.0499997139 13.6700000763
13.4299993515 5.9099998474 13.6999998093
13.4299993515 6.0999999046 13.7700004578
13.4299993515 6.3299999237 14.2100000381
13.4299993515 6.4099998474 14.2399997711
13.4299993515 5.7699999809 14.2500000000
13.4399995804 6.1199998856 8.0500001907
13.4399995804 5.5899996758 8.0699996948
13.4399995804 4.6699995995 8.0900001526
13.4399995804 4.6699995995 8.1099996567
13.4399995804 5.2199997902 10.0799999237
13.4399995804 6.2300000191 10.2100000381
13.4399995804 6.1900000572 10.2600002289
13.4399995804 7.0299997330 10.3199996948
13.4399995804 5.5399999619 11.1199998856
13.4399995804 6.1399998665 11.8000001907
13.4399995804 5.3799996376 11.8800001144
13.4399995804 4.6799998283 12.0000000000
13.4399995804 4.6399998665 12.0699996948
13.4399995804 5.0799999237 12.2200002670
13.4399995804 6.6499996185 12.9300003052
13.4399995804 5.3799996376 13.1899995804
13.4399995804 5.6499996185 13.2399997711
13.4399995804 6.5399999619 13.2600002289
13.4399995804 6.6399998665 13.3400001526
13.4399995804 5.4099998474 13.3500003815
13.4399995804 5.5599999428 13.3800001144
13.4399995804 5.4600000381 13.4399995804
13.4399995804 5.5099997520 13.6400003433
13.4399995804 6.1799998283 13.6899995804
13.4399995804 5.8199996948 13.7299995422
13.4399995804 6.0899996758 13.8999996185
13.4399995804 6.1900000572 14.1000003815
13.4399995804 5.7899999619 14.1499996185
13.4499998093 5.1299996376 7.6900000572
13.4499998093 6.1900000572 8.0399999619
13.4499998093 4.5999999046 8.1099996567
13.4499998093 4.7699999809 10.0399999619
13.4499998093 6.2799997330 10.1800003052
13.4499998093 5.7899999619 10.6400003433
13.4499998093 4.7799997330 11.9799995422
13.4499998093 4.7300000191 12.0100002289
13.4499998093 6.0499997139 12.6400003433
13.4499998093 4.9400000572 12.9499998093
13.4499998093 6.6599998474 13.0699996948
13.4499998093 5.1900000572 13.0799999237
13.4499998093 5.2199997902 13.1999998093
13.4499998093 6.4699997902 13.2500000000
13.4499998093 5.3199996948 13.2500000000
13.4499998093 6.5499997139 13.2799997330
13.4499998093 5.5999999046 13.3500003815
13.4499998093 6.6399998665 13.3699998856
13.4499998093 5.7699999809 13.7399997711
13.4499998093 6.2699999809 14.0000000000
13.4499998093 6.3399996758 14.0299997330
13.4499998093 5.7999997139 14.0799999237
13.4499998093 5.7699999809 14.2600002289
13.4600000381 5.6099996567 6.5999999046
13.4600000381 5.6799998283 7.4200000763
13.4600000381 4.7500000000 8.1800003052
13.4600000381 5.3099999428 10.0399999619
13.4600000381 6.3399996758 10.1599998474
13.4600000381 6.9499998093 10.2799997330
13.4600000381 7.0399999619 10.3000001907
13.4600000381 7.0000000000 10.3699998856
13.4600000381 5.9099998474 10.7200002670
13.4600000381 5.3999996185 11.2399997711
13.4600000381 5.0699996948 12.7799997330
13.4600000381 6.2399997711 12.9200000763
13.4600000381 6.8099999428 12.9200000763
13.4600000381 6.8199996948 13.4799995422
13.4699993134 4.4099998474 7.9200000763
13.4699993134 6.1299996376 8.0399999619
13.4699993134 4.8099999428 8.1199998856
13.4699993134 5.4099998474 9.5399999619
13.4699993134 5.2699999809 10.1400003433
13.4699993134 7.0699996948 10.3100004196
13.4699993134 5.9899997711 10.5500001907
13.4699993134 5.9199995995 10.9200000763
13.4699993134 4.6900000572 12.0500001907
13.4699993134 6.0199999809 12.8299999237
13.4699993134 6.7500000000 12.8500003815
13.4699993134 4.9299998283 12.8800001144
13.4699993134 5.0999999046 12.8800001144
13.4699993134 6.8899998665 12.8900003433
13.4699993134 6.8399996758 12.8999996185
13.4699993134 5.2199997902 13.1099996567
13.4699993134 5.9600000381 13.8900003433
13.4699993134 6.0299997330 13.8900003433
13.4699993134 6.2399997711 13.8900003433
13.4699993134 6.3199996948 13.9300003052
13.4699993134 6.3799996376 14.2700004578
13.4799995422 5.5399999619 6.6100001335
13.4799995422 5.7399997711 7.4200000763
13.4799995422 5.0599999428 8.3800001144
13.4799995422 7.0000000000 10.2700004578
13.4799995422 6.0199999809 10.4700002670
13.4799995422 5.2100000381 12.1199998856
13.4799995422 4.9499998093 12.5500001907
13.4799995422 6.1299996376 12.7200002670
13.4799995422 6.9400000572 12.8299999237
13.4799995422 6.6999998093 12.8999996185
13.4799995422 5.6299996376 13.2299995422
13.4799995422 5.1999998093 13.3400001526
13.4799995422 6.4899997711 13.3599996567
13.4799995422 5.4600000381 13.5799999237
13.4799995422 6.1999998093 13.8199996948
13.4799995422 6.2500000000 14.1999998093
13.4799995422 6.2699999809 14.2700004578
13.4899997711 4.8399996758 7.7399997711
13.4899997711 5.0499997139 8.2299995422
13.4899997711 4.7500000000 10.0100002289
13.4899997711 7.0599999428 10.2200002670
13.4899997711 4.7699999809 11.9200000763
13.4899997711 5.5099997520 12.4399995804
13.4899997711 5.1499996185 12.6400003433
13.4899997711 6.8899998665 12.8599996567
13.4899997711 6.7899999619 12.8699998856
13.4899997711 5.5799999237 13.3900003433
13.4899997711 5.9199995995 13.8599996567
13.4899997711 6.2300000191 14.0500001907
13.4899997711 5.6799998283 14.1599998474
13.4899997711 5.7799997330 14.1700000763
13.5000000000 4.3499999046 7.9499998093
13.5000000000 4.5299997330 7.9600000381
13.5000000000 5.6900000572 9.3500003815
13.5000000000 6.1599998474 10.2600002289
13.5000000000 6.1099996567 10.3199996948
13.5000000000 5.9899997711 11.5399999619
13.5000000000 5.1999998093 11.6800003052
13.5000000000 5.2500000000 11.7100000381
13.5000000000 5.0399999619 12.5600004196
13.5000000000 5.4099998474 12.6000003815
13.5000000000 6.9800000191 12.8000001907
13.5000000000 6.7999997139 12.8800001144
13.5000000000 6.7100000381 12.9099998474
13.5000000000 6.0000000000 13.2799997330
13.5000000000 6.5799999237 13.2899999619
13.5000000000 5.8299999237 13.3900003433
13.5000000000 5.7599997520 13.6800003052
13.5000000000 5.8299999237 13.6999998093
13.5000000000 5.8999996185 13.6999998093
13.5000000000 5.6699995995 13.7399997711
13.5000000000 6.4099998474 14.1700000763
13.5000000000 6.4800000191 14.4700002670
13.5100002289 5.5999999046 6.5999999046
13.5100002289 4.3699998856 7.9299998283
13.5100002289 5.2300000191 8.2500000000
13.5100002289 4.8999996185 10.0600004196
13.5100002289 5.3499999046 11.6499996185
13.5100002289 5.1399998665 11.8999996185
13.5100002289 4.6999998093 12.0399999619
13.5100002289 6.8899998665 12.8299999237
13.5100002289 6.5199999809 13.2899999619
13.5100002289 5.2899999619 13.3000001907
13.5100002289 6.6199998856 13.4200000763
13.5100002289 6.2100000381 13.5100002289
13.5100002289 6.1699995995 13.7600002289
13.5199995041 5.7100000381 7.4200000763
13.5199995041 5.7300000191 9.3599996567
13.5199995041 6.9299998283 10.2200002670
13.5199995041 6.9099998474 10.2299995422
13.5199995041 7.0099997520 10.2600002289
13.5199995041 7.0999999046 10.3000001907
13.5199995041 5.8099999428 11.4799995422
13.5199995041 4.7300000191 12.0399999619
13.5199995041 4.9499998093 12.2399997711
13.5199995041 5.8499999046 12.5000000000
13.5199995041 6.9899997711 12.7600002289
13.5199995041 6.2500000000 12.9600000381
13.5199995041 6.2999997139 13.5399999619
13.5199995041 5.9400000572 13.9200000763
13.5199995041 6.0299997330 13.9799995422
13.5199995041 6.3999996185 14.1300001144
13.5299997330 6.0499997139 7.0399999619
13.5299997330 4.8099999428 7.6799998283
13.5299997330 4.2899999619 7.9499998093
13.5299997330 6.1399998665 8.0100002289
13.5299997330 4.9499998093 8.0699996948
13.5299997330 5.8599996567 8.5100002289
13.5299997330 7.0499997139 10.2600002289
13.5299997330 4.8099999428 11.9499998093
13.5299997330 4.7500000000 12.0699996948
13.5299997330 4.6599998474 12.0900001526
13.5299997330 4.8499999046 12.0900001526
13.5299997330 5.0999999046 12.5699996948
13.5299997330 6.6499996185 12.9600000381
13.5299997330 5.1299996376 13.1099996567
13.5299997330 6.5999999046 13.1400003433
13.5299997330 6.3199996948 14.1400003433
13.5399999619 5.5999999046 6.5300002098
13.5399999619 5.5699996948 6.6300001144
13.5399999619 4.4499998093 7.7199997902
13.5399999619 4.3899998665 7.9200000763
13.5399999619 4.5599999428 9.5100002289
13.5399999619 5.4600000381 9.9899997711
13.5399999619 4.8799996376 9.9899997711
13.5399999619 5.0099997520 10.1800003052
13.5399999619 5.4800000191 11.2899999619
13.5399999619 5.5799999237 11.5799999237
13.5399999619 5.1399998665 12.5799999237
13.5399999619 6.2199997902 12.8500003815
13.5399999619 6.7500000000 12.9200000763
13.5399999619 6.3099999428 13.1400003433
13.5399999619 6.1399998665 13.7899999619
13.5399999619 6.2199997902 13.9099998474
13.5500001907 5.6299996376 8.1199998856
13.5500001907 4.9899997711 8.1700000763
13.5500001907 5.5199999809 11.1999998093
13.5500001907 5.2599997520 11.6400003433
13.5500001907 6.8399996758 12.8599996567
13.5500001907 6.3699998856 12.8900003433
13.5500001907 6.6499996185 13.0200004578
13.5500001907 6.5499997139 13.3800001144
13.5500001907 5.5399999619 13.4399995804
13.5500001907 6.0299997330 13.6400003433
13.5500001907 6.1699995995 13.6499996185
13.5500001907 6.2300000191 14.2700004578
13.5599994659 6.0199999809 7.0399999619
13.5599994659 4.3499999046 7.9200000763
13.5599994659 5.9299998283 10.7299995422
13.5599994659 5.4899997711 12.4399995804
13.5599994659 6.2899999619 12.5799999237
13.5599994659 4.5499997139 12.7100000381
13.5599994659 6.9199995995 12.8100004196
13.5599994659 6.6699995995 12.8999996185
13.5599994659 6.7599997520 12.9200000763
13.5599994659 5.7500000000 13.0900001526
13.5599994659 5.2300000191 13.1199998856
13.5599994659 5.3199996948 13.1599998474
13.5599994659 5.4199995995 13.1700000763
13.5599994659 5.7500000000 13.2399997711
13.5599994659 5.3799996376 13.3299999237
13.5599994659 5.8099999428 13.4399995804
13.5599994659 6.0999999046 13.6000003815
13.5599994659 5.7999997139 13.6700000763
13.5599994659 5.7500000000 14.2399997711
13.5699996948 4.3599996567 7.9299998283
13.5699996948 4.4600000381 7.9800000191
13.5699996948 5.5099997520 10.1000003815
13.5699996948 4.8299999237 12.6599998474
13.5699996948 4.6299996376 12.6800003052
13.5699996948 6.4499998093 12.7799997330
13.5699996948 6.9499998093 12.8199996948
13.5699996948 6.8599996567 12.8800001144
13.5699996948 5.5499997139 13.2399997711
13.5699996948 5.6799998283 13.4700002670
13.5799999237 4.4199995995 8.0100002289
13.5799999237 4.8599996567 9.4799995422
13.5799999237 5.9600000381 11.4399995804
13.5799999237 4.7799997330 12.1800003052
13.5799999237 4.9199995995 12.6199998856
13.5799999237 6.1099996567 12.7200002670
13.5799999237 5.7300000191 13.1099996567
13.5799999237 5.6699995995 13.1199998856
13.5799999237 5.5099997520 13.1599998474
13.5799999237 5.2999997139 13.1700000763
13.5799999237 6.1399998665 13.8599996567
13.5799999237 6.2999997139 14.2299995422
13.5799999237 5.8799996376 14.5000000000
13.5900001526 4.4099998474 7.6500000954
13.5900001526 6.0399999619 8.0200004578
13.5900001526 5.6599998474 8.0699996948
13.5900001526 4.5399999619 8.0799999237
13.5900001526 4.7599997520 8.1300001144
13.5900001526 4.5699996948 9.3999996185
13.5900001526 4.8099999428 9.4899997711
13.5900001526 5.0899996758 9.5299997330
13.5900001526 5.0299997330 9.7200002670
13.5900001526 6.7999997139 10.2200002670
13.5900001526 4.8199996948 11.8000001907
13.5900001526 4.6799998283 12.0799999237
13.5900001526 4.7100000381 12.3900003433
13.5900001526 4.9299998283 12.6499996185
13.5900001526 4.6299996376 12.6899995804
13.5900001526 5.4499998093 13.1199998856
13.5900001526 5.3899998665 13.1400003433
13.5900001526 6.1299996376 13.5799999237
13.5900001526 6.1499996185 13.8400001526
13.5900001526 5.7300000191 14.3900003433
13.5900001526 5.8399996758 14.6700000763
13.5999994278 4.6299996376 7.8200001717
13.5999994278 4.3799996376 7.8499999046
13.5999994278 6.1099996567 8.0000000000
13.5999994278 4.6799998283 8.1800003052
13.5999994278 5.8399996758 10.5500001907
13.5999994278 4.8099999428 12.4399995804
13.5999994278 5.0000000000 12.4499998093
13.5999994278 5.1399998665 12.6199998856
13.5999994278 4.6799998283 12.7399997711
13.5999994278 6.7899999619 12.9899997711
13.5999994278 5.8999996185 13.8500003815
13.5999994278 6.0799999237 14.0900001526
13.5999994278 5.7300000191 14.2500000000
13.5999994278 5.7599997520 14.4300003052
13.6099996567 5.6099996567 6.5900001526
13.6099996567 4.7199997902 7.9099998474
13.6099996567 6.0499997139 8.0100002289
13.6099996567 4.9299998283 10.0900001526
13.6099996567 5.9400000572 10.5600004196
13.6099996567 5.7599997520 11.0299997330
13.6099996567 5.9899997711 12.8199996948
13.6099996567 5.7300000191 14.1199998856
13.6199998856 5.1499996185 7.8299999237
13.6199998856 4.5000000000 9.4200000763
13.6199998856 4.6399998665 9.4799995422
13.6199998856 5.5499997139 9.6999998093
13.6199998856 5.2100000381 10.1400003433
13.6199998856 5.0199999809 10.1700000763
13.6199998856 5.9800000191 10.5000000000
13.6199998856 5.0699996948 12.2700004578
13.6199998856 4.6399998665 12.5500001907
13.6199998856 6.0999999046 13.7799997330
13.6199998856 5.7399997711 13.8699998856
13.6199998856 5.7500000000 14.0100002289
13.6199998856 6.3799996376 14.1000003815
13.6300001144 5.9699997902 7.0100002289
13.6300001144 4.8599996567 10.0000000000
13.6300001144 6.7300000191 10.1800003052
13.6300001144 6.9199995995 10.2399997711
13.6300001144 5.0699996948 10.2799997330
13.6300001144 5.8299999237 11.8299999237
13.6300001144 5.1599998474 12.5600004196
13.6300001144 4.8899998665 12.6199998856
13.6300001144 4.6999998093 12.6999998093
13.6300001144 4.6399998665 12.7299995422
13.6300001144 6.0899996758 12.7399997711
13.6300001144 5.2999997139 12.8599996567
13.6300001144 5.7100000381 13.0600004196
13.6300001144 5.5399999619 13.5600004196
13.6300001144 6.0699996948 13.6599998474
13.6300001144 6.1699995995 13.8900003433
13.6300001144 5.9400000572 14.0299997330
13.6300001144 5.8799996376 14.5799999237
13.6399993896 6.0899996758 7.0799999237
13.6399993896 5.6499996185 10.1700000763
13.6399993896 6.1099996567 10.3000001907
13.6399993896 4.8099999428 12.6499996185
13.6399993896 6.4199995995 12.9600000381
13.6399993896 5.5599999428 13.2399997711
13.6399993896 5.7699999809 13.5200004578
13.6399993896 5.6599998474 13.6000003815
13.6399993896 5.6799998283 14.3999996185
13.6499996185 4.1799998283 9.1199998856
13.6499996185 4.3899998665 9.3699998856
13.6499996185 4.4800000191 9.3699998856
13.6499996185 5.6299996376 10.1499996185
13.6499996185 4.8599996567 12.0000000000
13.6499996185 5.1799998283 12.1199998856
13.6499996185 5.6299996376 12.2500000000
13.6499996185 4.6199998856 12.7200002670
13.6499996185 6.5199999809 12.9399995804
13.6499996185 6.6099996567 12.9799995422
13.6499996185 5.9699997902 13.6800003052
13.6499996185 6.1299996376 14.2100000381
13.6499996185 5.7500000000 14.2600002289
13.6599998474 5.9800000191 6.2800002098
13.6599998474 5.0999999046 8.2600002289
13.6599998474 5.2399997711 8.2799997330
13.6599998474 4.2699999809 9.0399999619
13.6599998474 5.7100000381 9.3500003815
13.6599998474 5.1499996185 9.6300001144
13.6599998474 5.0799999237 9.6400003433
13.6599998474 5.0099997520 11.5799999237
13.6599998474 4.8399996758 12.1199998856
13.6599998474 5.2399997711 12.4600000381
13.6599998474 4.7599997520 12.6400003433
13.6599998474 4.6099996567 12.6999998093
13.6599998474 6.6900000572 12.8800001144
13.6599998474 5.2699999809 13.1599998474
13.6599998474 6.0099997520 13.5799999237
13.6599998474 6.0599999428 13.6999998093
13.6599998474 5.1699995995 13.8400001526
13.6599998474 5.8799996376 14.0000000000
13.6599998474 5.4699997902 14.0299997330
13.6599998474 5.5699996948 14.0799999237
13.6599998474 5.7699999809 14.2500000000
13.6599998474 6.2399997711 14.4600000381
13.6599998474 5.8599996567 14.5100002289
13.6700000763 7.4500002861 7.7100000381
13.6700000763 4.2599997520 7.8600001335
13.6700000763 4.1399998665 9.1899995804
13.6700000763 4.4299998283 9.3800001144
13.6700000763 4.7699999809 12.1099996567
13.6700000763 4.6599998474 12.1199998856
13.6700000763 6.8899998665 12.8900003433
13.6700000763 6.7899999619 12.8900003433
13.6700000763 5.1900000572 13.1000003815
13.6700000763 5.8799996376 13.1400003433
13.6700000763 6.1699995995 13.7399997711
13.6700000763 5.9899997711 13.8299999237
13.6700000763 6.1099996567 14.1000003815
13.6799993515 4.4400000572 7.8600001335
13.6799993515 4.3499999046 7.8600001335
13.6799993515 4.4099998474 7.9099998474
13.6799993515 4.2199997902 9.1000003815
13.6799993515 4.3199996948 9.1700000763
13.6799993515 4.2899999619 9.2700004578
13.6799993515 4.5299997330 9.4200000763
13.6799993515 4.7500000000 9.5000000000
13.6799993515 5.2100000381 11.6199998856
13.6799993515 5.3099999428 11.9099998474
13.6799993515 4.7599997520 12.0500001907
13.6799993515 5.5299997330 12.4399995804
13.6799993515 4.9099998474 12.6099996567
13.6799993515 5.4400000572 13.3400001526
13.6799993515 6.6499996185 13.5000000000
13.6799993515 6.2100000381 13.5699996948
13.6799993515 5.3499999046 13.6899995804
13.6799993515 6.1199998856 13.7100000381
13.6799993515 5.2500000000 13.7299995422
13.6799993515 6.0199999809 13.9899997711
13.6799993515 6.0199999809 14.0500001907
13.6799993515 5.9800000191 14.0699996948
13.6799993515 5.7699999809 14.1000003815
13.6799993515 6.4099998474 14.5600004196
13.6899995804 6.0699996948 5.6799998283
13.6899995804 5.6399998665 6.5700001717
13.6899995804 6.0599999428 8.0100002289
13.6899995804 4.2100000381 8.9399995804
13.6899995804 4.8699998856 9.6000003815
13.6899995804 5.6199998856 11.3699998856
13.6899995804 4.8099999428 12.6499996185
13.6899995804 5.1199998856 12.6499996185
13.6899995804 6.0599999428 13.1599998474
13.6899995804 6.0499997139 13.7899999619
13.6899995804 6.1099996567 14.0100002289
13.6899995804 5.5699996948 14.0799999237
13.6899995804 6.0599999428 14.1300001144
13.6999998093 4.6399998665 9.4600000381
13.6999998093 4.9899997711 9.9600000381
13.6999998093 6.6399998665 10.1400003433
13.6999998093 4.8399996758 11.8699998856
13.6999998093 4.8099999428 11.9399995804
13.6999998093 5.7500000000 12.2700004578
13.6999998093 4.6599998474 12.6700000763
13.6999998093 5.0099997520 12.6700000763
13.6999998093 5.9800000191 12.7700004578
13.6999998093 5.6799998283 13.9499998093
13.6999998093 5.6399998665 14.6999998093
13.7100000381 4.2699999809 7.8400001526
13.7100000381 5.7199997902 8.0600004196
13.7100000381 4.7399997711 8.1400003433
13.7100000381 6.1299996376 8.3800001144
13.7100000381 4.2899999619 9.1700000763
13.7100000381 4.1900000572 9.1899995804
13.7100000381 4.2199997902 9.2200002670
13.7100000381 4.3099999428 9.2200002670
13.7100000381 4.3799996376 9.3100004196
13.7100000381 4.4400000572 9.3999996185
13.7100000381 4.4899997711 9.4099998474
13.7100000381 4.7899999619 9.4499998093
13.7100000381 6.5899996758 10.1199998856
13.7100000381 6.6499996185 10.1199998856
13.7100000381 4.9099998474 12.5600004196
13.7100000381 4.6799998283 12.6099996567
13.7100000381 5.1199998856 12.6099996567
13.7100000381 5.0799999237 12.6400003433
13.7100000381 5.5199999809 13.6000003815
13.7100000381 6.0000000000 13.8299999237
13.7100000381 6.1399998665 13.8599996567
13.7100000381 6.2899999619 13.9300003052
13.7100000381 5.5599999428 13.9399995804
13.7100000381 6.4699997902 14.0299997330
13.7199993134 7.1499996185 7.7100000381
13.7199993134 4.3499999046 7.8600001335
13.7199993134 4.9899997711 7.9899997711
13.7199993134 4.5899996758 9.3800001144
13.7199993134 4.5199999809 9.4899997711
13.7199993134 4.8399996758 9.5200004578
13.7199993134 4.8399996758 10.0399999619
13.7199993134 5.0599999428 12.0100002289
13.7199993134 5.2100000381 12.2299995422
13.7199993134 6.2599997520 12.8400001526
13.7199993134 6.3699998856 13.8400001526
13.7199993134 5.5199999809 13.8599996567
13.7199993134 5.8299999237 14.3800001144
13.7299995422 4.4499998093 7.8499999046
13.7299995422 4.8599996567 8.0799999237
13.7299995422 6.1399998665 8.3299999237
13.7299995422 4.8499999046 9.4600000381
13.7299995422 4.6099996567 9.4700002670
13.7299995422 5.6699995995 10.1800003052
13.7299995422 5.0199999809 12.0699996948
13.7299995422 4.6199998856 12.6400003433
13.7299995422 6.1999998093 12.7399997711
13.7299995422 6.3599996567 12.9099998474
13.7299995422 6.6099996567 13.0000000000
13.7299995422 5.8699998856 13.6999998093
13.7399997711 5.6599998474 6.5300002098
13.7399997711 7.1399998665 7.6500000954
13.7399997711 6.0499997139 8.0000000000
13.7399997711 5.6199998856 8.0900001526
13.7399997711 4.8599996567 8.1700000763
13.7399997711 4.3599996567 9.2700004578
13.7399997711 4.3499999046 9.3100004196
13.7399997711 4.4800000191 9.3599996567
13.7399997711 4.7699999809 9.3900003433
13.7399997711 4.9899997711 12.0600004196
13.7399997711 4.7100000381 12.6300001144
13.7399997711 5.3599996567 13.1000003815
13.7399997711 5.4600000381 13.6999998093
13.7399997711 5.3799996376 13.7200002670
13.7399997711 5.3199996948 13.7200002670
13.7399997711 6.0999999046 13.8000001907
13.7399997711 6.0799999237 14.0799999237
13.7399997711 5.5899996758 14.7500000000
13.7500000000 5.8999996185 7.4699997902
13.7500000000 7.4400000572 7.5900001526
13.7500000000 5.9899997711 7.7600002289
13.7500000000 4.1299996376 9.1499996185
13.7500000000 4.2199997902 9.1599998474
13.7500000000 4.3199996948 9.2399997711
13.7500000000 4.4299998283 9.4200000763
13.7500000000 5.0499997139 9.4799995422
13.7500000000 4.6299996376 9.5100002289
13.7500000000 5.0099997520 9.6199998856
13.7500000000 5.6299996376 11.8599996567
